ply
format ascii 1.0
element vertex 843
property float x
property float y
property float z
end_header
4.024453639984131 9.477724075317383 2.177649974822998
2.6664228439331055 9.068840026855469 2.2935914993286133
2.9945878982543945 9.210795402526855 2.3704659938812256
4.074323654174805 9.273369789123535 2.018893241882324
2.3709797859191895 8.679678916931152 2.8036487102508545
3.1002426147460938 9.232821464538574 2.328859329223633
4.045858860015869 9.382076263427734 2.0507872104644775
3.904221534729004 9.128260612487793 1.8489148616790771
3.0903820991516113 9.230292320251465 2.2835800647735596
1.5195982456207275 8.547616004943848 3.028376817703247
3.166753053665161 9.022461891174316 2.085664987564087
0.9317705035209656 8.179756164550781 3.1947665214538574
4.132833957672119 9.485366821289062 2.1839287281036377
3.1876890659332275 8.905543327331543 2.1292970180511475
3.6854641437530518 8.083846092224121 2.0255491733551025
0.42239946126937866 7.954776763916016 3.357999563217163
2.9233455657958984 4.309178352355957 3.3708372116088867
3.9046082496643066 9.390508651733398 2.1488590240478516
1.721399188041687 8.428725242614746 2.126055955886841
3.792405128479004 9.375836372375488 2.131549835205078
4.00477933883667 8.86863899230957 2.531158685684204
2.507629156112671 8.911798477172852 2.7290802001953125
3.935289144515991 8.906311988830566 2.019080877304077
2.1434850692749023 8.914965629577637 2.96004319190979
3.235910654067993 9.124093055725098 2.1839981079101562
3.0585429668426514 8.815075874328613 2.8438124656677246
2.950786590576172 3.9610238075256348 4.078996658325195
1.0930962562561035 -0.43956074118614197 2.399275302886963
0.33644524216651917 6.380824089050293 3.7618026733398438
3.018268585205078 8.548033714294434 2.3442771434783936
3.6223316192626953 8.923741340637207 2.2385780811309814
1.465333342552185 7.2208757400512695 3.3906562328338623
0.8545264005661011 6.765183925628662 3.5159265995025635
3.1496191024780273 7.317378044128418 3.3682351112365723
1.3833009004592896 7.129952907562256 1.931907057762146
1.5902376174926758 7.2928147315979 1.9768503904342651
2.9262044429779053 9.333358764648438 2.3238167762756348
1.8018271923065186 9.100245475769043 2.9977684020996094
3.9235334396362305 9.567923545837402 2.100816488265991
1.7940739393234253 9.002821922302246 2.930922031402588
2.7832114696502686 9.443081855773926 2.3554654121398926
3.8288393020629883 8.82894515991211 2.1340959072113037
0.5610813498497009 8.189937591552734 3.2184085845947266
2.7747676372528076 9.167463302612305 2.8179256916046143
3.712838888168335 9.594242095947266 2.1059248447418213
2.401771306991577 9.12775707244873 2.8376739025115967
2.2231764793395996 9.301010131835938 2.9403910636901855
1.743100643157959 9.077073097229004 3.179494619369507
2.385366678237915 9.252815246582031 3.1579244136810303
3.2240662574768066 8.199979782104492 2.416790723800659
1.6812418699264526 8.974295616149902 3.0218605995178223
3.9815242290496826 9.625116348266602 2.1401195526123047
1.9639774560928345 9.24690055847168 2.8870439529418945
2.9233202934265137 9.362467765808105 2.239997386932373
2.811892032623291 9.439059257507324 2.24421763420105
1.7381811141967773 9.076794624328613 2.9207653999328613
-0.018794575706124306 8.346555709838867 3.7987349033355713
3.0294313430786133 9.286757469177246 2.361111640930176
3.5812220573425293 9.614691734313965 2.049109935760498
0.32136309146881104 8.364055633544922 3.6304287910461426
0.3479355275630951 8.38999080657959 3.1366589069366455
-0.6869969964027405 7.880997180938721 3.6105008125305176
2.7159922122955322 4.759847640991211 4.164044380187988
1.77263343334198 9.087471008300781 3.0885322093963623
4.136645793914795 9.530756950378418 2.148347854614258
2.8697943687438965 6.872408390045166 2.1819989681243896
3.5214643478393555 8.380602836608887 2.135711193084717
0.17383135855197906 4.032695770263672 3.9044172763824463
3.671055555343628 9.613911628723145 2.0514469146728516
2.943427085876465 9.336852073669434 2.2860682010650635
1.8007785081863403 4.772495746612549 3.214684009552002
2.5440590381622314 4.773830413818359 3.8886892795562744
3.4696667194366455 9.319772720336914 2.0656795501708984
3.8263437747955322 9.527491569519043 2.1018471717834473
0.18493467569351196 8.34385871887207 3.3119425773620605
3.97575044631958 9.363699913024902 1.9761651754379272
3.1072046756744385 9.345441818237305 2.4207398891448975
2.4738171100616455 9.36292552947998 2.9596362113952637
3.603010416030884 8.010961532592773 2.0921883583068848
2.9989817142486572 9.235624313354492 2.6579809188842773
1.3396122455596924 6.089614391326904 4.006807804107666
3.1359472274780273 8.43453311920166 1.96784508228302
1.5852359533309937 8.942931175231934 3.250199317932129
1.4471100568771362 7.350470066070557 3.7959249019622803
1.9226552248001099 7.336485385894775 3.556724786758423
-2.0062479972839355 3.365710973739624 2.7003438472747803
1.461103081703186 9.127402305603027 3.379373550415039
1.5222276449203491 9.023467063903809 3.3100552558898926
2.8965845108032227 9.721878051757812 2.531733512878418
2.983891010284424 9.654570579528809 2.499077796936035
4.151041507720947 9.648773193359375 2.1714799404144287
1.3326715230941772 8.979942321777344 3.548527479171753
1.1562803983688354 7.387280464172363 3.9339241981506348
2.698084592819214 8.322220802307129 2.0372378826141357
0.6897262334823608 9.242231369018555 3.1032660007476807
1.7702932357788086 9.189756393432617 2.974958658218384
2.3805336952209473 8.148605346679688 2.355665922164917
0.008037864230573177 9.294480323791504 3.208042621612549
0.8291836380958557 9.093877792358398 3.3180789947509766
3.1116280555725098 9.767642974853516 2.3848230838775635
4.0273542404174805 9.308244705200195 2.030538320541382
1.5463110208511353 9.156695365905762 3.056623935699463
2.7008707523345947 9.503597259521484 2.354853391647339
0.656195878982544 9.370128631591797 2.914630651473999
1.8478074073791504 9.617721557617188 3.077547073364258
3.1063807010650635 9.665764808654785 2.474083662033081
1.5309990644454956 9.146267890930176 3.2771859169006348
2.5370285511016846 9.19089412689209 2.74892258644104
3.086500883102417 9.613200187683105 2.4557547569274902
0.3245733380317688 8.390190124511719 3.8384861946105957
3.0777130126953125 9.60754108428955 2.5397279262542725
1.4766907691955566 9.422059059143066 3.417827606201172
1.8130446672439575 7.489390850067139 2.023143768310547
1.5809248685836792 9.043412208557129 3.3911571502685547
1.4664063453674316 9.143597602844238 3.186807870864868
2.424241781234741 9.641411781311035 2.591892719268799
1.4519777297973633 7.867436408996582 3.794407844543457
2.554811477661133 9.568328857421875 2.6300606727600098
0.4547271132469177 9.044571876525879 3.161033868789673
3.1075172424316406 9.614355087280273 2.5092740058898926
1.788226842880249 9.685376167297363 3.0483503341674805
-0.13004827499389648 8.927480697631836 3.0429627895355225
-0.8001116514205933 9.190834045410156 3.4020562171936035
2.8755156993865967 9.834847450256348 2.2569777965545654
2.816534996032715 8.31991958618164 1.9284764528274536
4.036198616027832 9.296394348144531 2.060943365097046
2.794296979904175 8.20422649383545 2.055795669555664
1.483192801475525 9.440423965454102 3.337686061859131
2.158590793609619 9.642436981201172 3.154125690460205
3.1694154739379883 8.969900131225586 2.131272792816162
3.0911712646484375 9.606304168701172 2.282010555267334
3.597463369369507 7.583665370941162 2.0654702186584473
3.080057382583618 9.61531925201416 2.1020309925079346
1.3368995189666748 9.298026084899902 3.3560423851013184
-1.0603108406066895 9.386090278625488 3.2700746059417725
3.126512289047241 9.773041725158691 2.297581911087036
1.4611247777938843 9.610817909240723 2.8565311431884766
0.807700514793396 6.927186012268066 4.158539295196533
1.0346318483352661 5.544011116027832 4.395244121551514
2.5789082050323486 4.54531192779541 4.140133380889893
4.059916973114014 9.191644668579102 2.0427558422088623
0.9884202480316162 10.023104667663574 2.7875962257385254
0.22281554341316223 9.830584526062012 2.8571345806121826
3.3848299980163574 9.915212631225586 2.39235258102417
2.954294204711914 9.883196830749512 2.4159228801727295
0.044398531317710876 9.966370582580566 2.8178482055664062
-0.0704188346862793 8.243800163269043 4.157333850860596
1.052517056465149 9.915724754333496 2.995680809020996
1.719922423362732 9.8478364944458 2.671037197113037
0.1666281819343567 9.50655746459961 2.9211716651916504
-0.007422930095344782 9.432963371276855 3.516554117202759
0.24975468218326569 9.707415580749512 2.8858861923217773
-0.19275067746639252 9.054813385009766 3.6306416988372803
0.4854184687137604 9.801812171936035 3.471688747406006
2.794872999191284 9.94513988494873 2.4555649757385254
0.41968852281570435 10.149853706359863 2.633434295654297
2.2409865856170654 9.757436752319336 2.7232463359832764
0.4733235538005829 10.155926704406738 2.534694194793701
1.2383309602737427 10.161494255065918 2.616042137145996
1.1413019895553589 9.992291450500488 2.498845100402832
1.5318394899368286 10.168927192687988 2.3518712520599365
1.2585842609405518 6.869946479797363 2.0135152339935303
-1.9712578058242798 10.017791748046875 3.0347344875335693
-1.620115041732788 9.351203918457031 3.530541181564331
2.1785342693328857 8.047425270080566 2.8993654251098633
0.9032196402549744 9.96332836151123 2.550154209136963
-1.4970873594284058 9.880084037780762 3.3468074798583984
3.0008223056793213 9.828378677368164 2.3737165927886963
1.176965594291687 8.94410514831543 3.7989304065704346
2.913815498352051 8.201601028442383 2.2457661628723145
2.392577648162842 9.846085548400879 2.4881556034088135
1.427767038345337 10.177142143249512 2.286756753921509
3.2015693187713623 9.943384170532227 2.1200714111328125
4.012697696685791 9.792012214660645 2.166624069213867
4.031528949737549 9.526013374328613 2.1944329738616943
1.991275668144226 10.072000503540039 3.2149343490600586
0.17352913320064545 9.793804168701172 3.6634368896484375
0.6518329977989197 7.1418609619140625 4.181972026824951
0.5504098534584045 9.980661392211914 2.6367275714874268
-0.32439470291137695 10.175500869750977 2.73177433013916
3.1237480640411377 9.926875114440918 2.3882665634155273
3.7602500915527344 9.178205490112305 2.146043062210083
2.0104997158050537 10.161479949951172 2.60408878326416
1.8486762046813965 9.989641189575195 3.365534782409668
0.00414980249479413 10.107881546020508 3.234889030456543
4.027918338775635 9.540401458740234 2.117917776107788
-0.6503133773803711 9.953658103942871 3.978966236114502
0.9980936050415039 6.330106258392334 4.313868045806885
4.037463665008545 9.241503715515137 2.048461437225342
2.9036965370178223 10.065146446228027 2.3491618633270264
2.338996171951294 6.732067584991455 2.483471632003784
1.6465120315551758 10.180543899536133 2.8489344120025635
3.3772382736206055 8.051288604736328 2.0724399089813232
0.03346165642142296 9.607325553894043 3.520578384399414
2.96087384223938 9.880847930908203 2.326491117477417
-0.014943867921829224 9.677228927612305 3.073256492614746
3.169525623321533 8.502751350402832 2.4296839237213135
0.9276766777038574 9.028412818908691 3.828026294708252
3.0105886459350586 9.60234546661377 2.178269624710083
2.5412437915802 10.115594863891602 2.4027509689331055
-0.6144336462020874 9.404681205749512 3.096438407897949
2.746030807495117 6.867477893829346 1.9432538747787476
-1.4032729864120483 10.576077461242676 3.2736685276031494
2.7213706970214844 10.230243682861328 2.8821396827697754
0.9142301082611084 10.588367462158203 3.4581034183502197
0.4540010392665863 10.586662292480469 3.3968379497528076
2.198821783065796 10.325705528259277 2.872236967086792
1.9587069749832153 10.158544540405273 2.7792985439300537
2.0787527561187744 10.352863311767578 2.8037424087524414
2.9796760082244873 8.379048347473145 2.0537266731262207
0.998078465461731 10.490378379821777 3.6946732997894287
0.6340875029563904 10.469135284423828 2.862921714782715
0.9336098432540894 10.101645469665527 3.546952724456787
0.08338756859302521 9.473698616027832 4.153151988983154
0.8846545815467834 10.620100975036621 3.397010087966919
0.24391630291938782 10.530672073364258 3.767348051071167
0.4569622576236725 10.590729713439941 3.4769299030303955
-0.030848201364278793 9.315585136413574 4.1550068855285645
0.8538557887077332 10.284801483154297 3.479173421859741
4.079616069793701 9.826438903808594 2.1955771446228027
1.076050877571106 9.045629501342773 3.8885374069213867
-0.9961639046669006 8.318229675292969 3.919405698776245
2.5231711864471436 10.39393424987793 2.7898566722869873
-3.4535715579986572 11.293831825256348 3.746389389038086
3.1287484169006348 9.777831077575684 2.1003129482269287
-0.11628174781799316 10.797593116760254 3.891955852508545
-0.3130967617034912 9.859456062316895 3.4074254035949707
-0.09270112216472626 7.711479663848877 4.3267364501953125
0.5203302502632141 9.153191566467285 4.073877334594727
-0.4222046732902527 10.275086402893066 3.28009295463562
0.4452737867832184 10.512678146362305 3.313948392868042
1.8184947967529297 9.967498779296875 3.112720012664795
2.96138596534729 8.195075988769531 2.1251380443573
3.310493230819702 10.155069351196289 2.1343207359313965
2.7435874938964844 8.69804859161377 2.0639586448669434
0.7766762971878052 10.296460151672363 3.3036699295043945
0.483974426984787 10.161420822143555 3.764315128326416
1.9325743913650513 10.431175231933594 3.4920294284820557
0.17941196262836456 10.420088768005371 3.218808650970459
2.3957111835479736 10.187241554260254 2.9114651679992676
3.291224718093872 9.908939361572266 2.2080531120300293
-1.622065544128418 10.369108200073242 3.2723565101623535
0.20720763504505157 10.295866012573242 2.71921706199646
2.1808314323425293 10.50027084350586 3.0028443336486816
3.000990629196167 9.834314346313477 2.465772867202759
0.8488482236862183 10.45840835571289 3.5073230266571045
-0.033483076840639114 9.151577949523926 3.020385265350342
1.7417939901351929 9.715436935424805 2.325235605239868
-0.3485183119773865 7.302219867706299 4.232801914215088
4.018793106079102 9.077712059020996 2.135715961456299
0.739460825920105 6.857306957244873 3.1808061599731445
3.197005271911621 8.989192008972168 2.181788206100464
0.8923464417457581 9.511397361755371 3.470644235610962
-0.2718619406223297 9.4199857711792 3.707331657409668
-0.3728128969669342 11.260397911071777 3.5962252616882324
3.418581247329712 10.328221321105957 2.1758859157562256
2.574946165084839 10.666472434997559 2.922971725463867
2.752739429473877 10.598756790161133 2.841188669204712
2.9263811111450195 10.486517906188965 2.7867255210876465
-0.2912137806415558 11.112104415893555 3.561535120010376
1.6945823431015015 10.828523635864258 3.6111719608306885
0.6338274478912354 9.221364974975586 4.159499645233154
2.537804365158081 10.742997169494629 2.933978796005249
-0.23253946006298065 6.153232574462891 3.698228597640991
2.9934017658233643 10.377479553222656 2.770017385482788
0.9447827935218811 10.8805513381958 3.757272720336914
1.9076753854751587 10.869417190551758 3.376110553741455
-0.40268275141716003 9.748360633850098 3.9419753551483154
2.636528253555298 10.707939147949219 2.8589272499084473
0.4225926995277405 10.997147560119629 3.5255112648010254
1.8915811777114868 10.42190170288086 3.0328288078308105
3.4173190593719482 10.36052417755127 2.146397829055786
0.1891961693763733 10.756577491760254 3.940217971801758
2.340327501296997 10.696465492248535 3.146561622619629
0.7132781744003296 8.993311882019043 4.166824817657471
0.9055739045143127 10.729246139526367 4.0126166343688965
0.8986731171607971 10.776716232299805 3.961021900177002
2.6364376544952393 10.590509414672852 2.9411799907684326
0.037686772644519806 11.004172325134277 3.8862462043762207
-0.12648603320121765 10.9799222946167 4.118427276611328
2.2634334564208984 10.643494606018066 2.8603484630584717
0.9247773289680481 6.9652886390686035 3.3582446575164795
-0.2572457194328308 9.20849895477295 3.5000691413879395
0.22338761389255524 11.255765914916992 3.506974458694458
2.1351492404937744 11.01220703125 2.705834150314331
0.8841030597686768 7.188318729400635 2.0493264198303223
2.2306690216064453 10.751181602478027 3.4760451316833496
3.1682140827178955 8.965471267700195 2.131002902984619
0.4157423675060272 10.308891296386719 2.363499402999878
2.516244649887085 10.696281433105469 3.025815963745117
3.1066765785217285 10.473220825195312 2.4638798236846924
-0.8885435461997986 9.632501602172852 3.2578585147857666
0.23812051117420197 10.281759262084961 4.259215354919434
-1.5572901964187622 5.6510114669799805 4.132381916046143
1.1405317783355713 9.072301864624023 3.5908148288726807
4.073246002197266 9.882862091064453 2.1932573318481445
-1.2649593353271484 10.438485145568848 4.092381000518799
-0.8220497965812683 10.657337188720703 3.7774593830108643
2.0553014278411865 10.955885887145996 3.278249502182007
2.203291416168213 9.636418342590332 2.738166332244873
0.08383124321699142 11.212835311889648 4.06170654296875
4.134859561920166 9.482373237609863 2.186634063720703
3.746196985244751 9.055233001708984 2.108712911605835
2.0764379501342773 10.808857917785645 3.439793109893799
4.0618367195129395 9.116888999938965 2.056469440460205
3.415161609649658 9.164803504943848 1.7997584342956543
1.2577913999557495 9.116527557373047 3.116816520690918
-0.9123790264129639 11.04558277130127 3.883572816848755
3.5522186756134033 8.890641212463379 2.8068814277648926
-1.2297908067703247 8.93651008605957 3.6741883754730225
2.0626015663146973 10.634967803955078 3.0041494369506836
4.184448719024658 9.963338851928711 2.2227895259857178
1.5306141376495361 11.157942771911621 3.693613290786743
2.5322649478912354 10.865930557250977 3.087775945663452
2.3343775272369385 10.973855018615723 2.930661201477051
2.9430196285247803 10.870991706848145 2.7016093730926514
0.6518236994743347 11.27863883972168 3.6579811573028564
3.2314200401306152 10.651905059814453 2.4734833240509033
3.196394443511963 10.790348052978516 2.224764347076416
3.1327528953552246 10.820510864257812 2.5134165287017822
3.1815645694732666 10.60330581665039 2.689103126525879
4.073781490325928 9.91294002532959 2.137295961380005
4.123189449310303 9.744226455688477 2.167783737182617
1.846326470375061 7.787760257720947 1.9058623313903809
4.085057258605957 9.863716125488281 2.166846752166748
-0.8148261308670044 12.063728332519531 3.7950594425201416
2.4557154178619385 11.057270050048828 3.2266933917999268
-0.9182673692703247 9.659528732299805 4.260241508483887
3.0805606842041016 8.640645027160645 2.0636818408966064
0.7879701852798462 9.003562927246094 3.523743152618408
2.965602159500122 9.657182693481445 2.4610726833343506
1.7752455472946167 11.29735279083252 3.3650758266448975
3.1680715084075928 10.78757381439209 2.5538313388824463
3.221555471420288 10.592597007751465 2.4770476818084717
4.1932902336120605 10.009496688842773 2.2509188652038574
4.080714702606201 9.82610034942627 2.1714885234832764
0.22240296006202698 10.976761817932129 3.689579725265503
0.9775130152702332 11.457420349121094 3.5074868202209473
2.321643114089966 10.154576301574707 2.3306996822357178
2.589918851852417 10.994501113891602 2.8543038368225098
3.923532009124756 9.339609146118164 2.0449655055999756
1.3985817432403564 8.936760902404785 2.2308762073516846
4.063127517700195 9.909464836120605 2.1706671714782715
2.1768429279327393 11.182341575622559 3.1807448863983154
1.9774264097213745 11.152403831481934 3.411367893218994
1.8185063600540161 11.362580299377441 3.099324941635132
-0.752370297908783 6.316338062286377 3.8838722705841064
3.174175500869751 10.54271125793457 2.7482049465179443
3.0941309928894043 10.85207748413086 2.249150037765503
4.0247650146484375 9.285330772399902 2.1336612701416016
3.739301919937134 9.502290725708008 2.0599355697631836
2.2904837131500244 10.835941314697266 3.0908703804016113
2.1374080181121826 11.073877334594727 3.476030111312866
-0.9149870872497559 10.373334884643555 3.7773444652557373
2.160916328430176 11.05624771118164 2.89015531539917
2.0033767223358154 11.115911483764648 3.0372090339660645
2.911362648010254 10.132341384887695 2.352470874786377
-0.4374588429927826 10.920122146606445 3.55545711517334
1.5969362258911133 9.900276184082031 2.5629758834838867
2.610718250274658 8.645196914672852 1.8772075176239014
0.7461130619049072 11.571649551391602 3.475938081741333
-0.410788357257843 9.603517532348633 4.188475131988525
1.6619818210601807 8.153966903686523 1.8384122848510742
3.3979172706604004 10.705148696899414 2.603100061416626
2.8773133754730225 11.16547966003418 2.8592281341552734
1.6676578521728516 10.451951026916504 2.9924416542053223
3.370011329650879 10.680560111999512 2.670012950897217
-0.9453417658805847 10.720477104187012 3.251842498779297
3.322800636291504 10.76275634765625 2.4396543502807617
2.2610723972320557 11.39796257019043 2.9807827472686768
4.039132118225098 9.412976264953613 2.1919729709625244
2.582711935043335 11.145916938781738 2.744217872619629
3.375089645385742 10.683734893798828 2.6284584999084473
1.363284945487976 11.735554695129395 3.1590161323547363
2.210630416870117 11.25060749053955 3.3640999794006348
1.9226601123809814 11.966404914855957 2.6562306880950928
3.683012008666992 10.731735229492188 2.193314790725708
1.4981155395507812 11.497260093688965 3.411166191101074
3.378941535949707 10.77391242980957 2.261711359024048
2.7172560691833496 11.214319229125977 2.9136085510253906
2.4163386821746826 10.609105110168457 3.0171570777893066
4.010925769805908 9.44136905670166 2.178764820098877
2.2181622982025146 11.703278541564941 2.8177711963653564
0.39251482486724854 11.836230278015137 3.7900655269622803
2.234386682510376 11.778361320495605 2.7085065841674805
3.4074931144714355 10.730643272399902 2.4856107234954834
2.2496354579925537 11.40890121459961 2.9115352630615234
2.543119192123413 11.441682815551758 2.4175479412078857
2.3239965438842773 11.602585792541504 3.0747194290161133
3.5757834911346436 9.28448486328125 2.080981969833374
1.9968401193618774 11.376272201538086 3.270733118057251
2.898834466934204 11.042461395263672 2.744058132171631
2.7543907165527344 11.166014671325684 3.113093137741089
3.687199831008911 9.500859260559082 2.0797743797302246
2.5960853099823 11.415154457092285 3.0854055881500244
2.0942039489746094 11.50244140625 3.344820976257324
2.6816837787628174 11.22433853149414 3.0566599369049072
3.5827126502990723 10.744887351989746 2.1902947425842285
2.842351198196411 9.914749145507812 2.1888985633850098
3.6857545375823975 10.720836639404297 2.2320802211761475
2.49393367767334 11.489333152770996 2.9717183113098145
3.483241319656372 10.797046661376953 2.277243137359619
1.2637261152267456 11.6119966506958 3.163127899169922
3.3037586212158203 10.156170845031738 2.12978196144104
0.9702083468437195 11.783784866333008 3.6709675788879395
2.4817142486572266 9.238704681396484 2.8590219020843506
4.043837547302246 9.273195266723633 2.161381244659424
3.8189258575439453 9.264765739440918 2.1688742637634277
0.43626922369003296 11.782012939453125 3.46079421043396
0.793457567691803 11.644210815429688 3.839425802230835
3.602684497833252 10.577221870422363 2.5324246883392334
0.204743891954422 10.555107116699219 3.6353979110717773
3.819600820541382 9.313322067260742 2.130450487136841
3.3713719844818115 10.825911521911621 2.645094394683838
2.676180124282837 11.342402458190918 2.4892666339874268
3.5313405990600586 10.663179397583008 2.3412179946899414
-2.2575035095214844 8.85297966003418 3.4037961959838867
3.9579687118530273 9.375176429748535 2.168273448944092
3.358618974685669 10.83533763885498 2.703610897064209
3.4381706714630127 10.686152458190918 2.68881893157959
-0.6323969960212708 11.50779914855957 3.8894684314727783
3.3613200187683105 10.820046424865723 2.324741840362549
3.295305013656616 8.965134620666504 2.2132394313812256
3.12606143951416 10.176481246948242 2.273139238357544
2.5298471450805664 11.32351303100586 2.89290714263916
1.9047125577926636 10.703534126281738 3.0325469970703125
2.946402072906494 10.61534595489502 2.9477624893188477
3.970303535461426 9.333442687988281 2.1807515621185303
0.22773244976997375 9.286107063293457 3.4360909461975098
1.235693335533142 12.395113945007324 3.4412405490875244
1.1813747882843018 12.334859848022461 3.6757757663726807
3.1556262969970703 9.218676567077637 2.2453525066375732
-0.9066744446754456 11.341912269592285 3.7990734577178955
-1.6659315824508667 9.995218276977539 3.2285990715026855
2.2646737098693848 11.926111221313477 2.4933955669403076
1.1639331579208374 13.002023696899414 3.1403305530548096
0.8814545273780823 13.262365341186523 2.821420192718506
3.3367438316345215 10.903942108154297 2.677727699279785
-0.9026606678962708 10.817880630493164 3.6258881092071533
1.430263638496399 12.667383193969727 3.1675398349761963
1.7544727325439453 12.512127876281738 2.4136648178100586
4.034194469451904 9.356964111328125 2.197284698486328
2.463376998901367 12.052743911743164 2.8444106578826904
1.629813313484192 8.96877670288086 2.95548415184021
1.0602024793624878 12.455733299255371 3.2652297019958496
2.548311471939087 11.62517261505127 2.4599575996398926
1.7278602123260498 12.636479377746582 3.1413655281066895
1.8080166578292847 11.938834190368652 3.054924964904785
0.5300803780555725 13.220417022705078 2.9366626739501953
1.2570219039916992 12.389455795288086 3.5161333084106445
2.1421756744384766 11.893861770629883 3.4941658973693848
1.6417169570922852 9.067980766296387 3.0841827392578125
0.8869776129722595 13.012109756469727 3.154179573059082
0.9884535074234009 13.227226257324219 2.6040737628936768
1.277693510055542 12.500153541564941 3.473616600036621
3.858515977859497 9.600010871887207 2.0759522914886475
2.0182299613952637 10.82852554321289 3.033867597579956
2.51422119140625 11.813714981079102 3.270923376083374
1.7905067205429077 11.06936264038086 3.0360257625579834
1.8039400577545166 11.239777565002441 2.994704008102417
2.0102131366729736 12.262073516845703 2.5261833667755127
2.891007423400879 10.09304428100586 2.176806926727295
3.235337972640991 9.165712356567383 2.105651378631592
3.7035112380981445 9.624536514282227 2.1005568504333496
2.0705301761627197 10.904828071594238 2.806854248046875
1.1049891710281372 12.398174285888672 3.540364980697632
2.5731818675994873 11.642843246459961 2.3536558151245117
0.8861563801765442 12.8582181930542 3.6516261100769043
1.8482662439346313 12.00085735321045 3.0641262531280518
2.3265371322631836 11.765931129455566 2.6495490074157715
1.6397881507873535 9.067537307739258 3.1734323501586914
1.4628475904464722 12.462014198303223 3.427156686782837
0.6404774785041809 11.940061569213867 3.927262306213379
0.11687859892845154 14.128947257995605 4.063638687133789
2.1497740745544434 12.005463600158691 3.472342014312744
1.0119863748550415 12.999987602233887 3.3349554538726807
0.7866213917732239 13.681900978088379 2.643047571182251
1.973154067993164 11.56371021270752 3.3190064430236816
2.2054286003112793 11.255196571350098 3.462697982788086
2.778632164001465 10.806265830993652 2.989170789718628
1.409877896308899 12.28494930267334 3.314490795135498
3.1863179206848145 9.170881271362305 2.4272971153259277
2.610333204269409 11.810184478759766 2.9108128547668457
1.7730344533920288 11.95710277557373 3.214494228363037
1.6354024410247803 12.476868629455566 3.311582565307617
2.6667606830596924 11.003985404968262 3.0214390754699707
-0.5101540684700012 14.546704292297363 3.161591053009033
0.6266636252403259 13.217215538024902 3.734266519546509
2.6753487586975098 11.770547866821289 3.142026424407959
1.995463252067566 10.974908828735352 3.152757406234741
1.2105114459991455 12.46306324005127 3.073256492614746
-1.1980910301208496 9.636899948120117 4.204809665679932
1.6996850967407227 12.2330322265625 3.5757477283477783
0.09053237736225128 13.9481840133667 4.160030364990234
2.7222366333007812 11.65694522857666 2.276742458343506
2.832693576812744 11.700181007385254 2.5084927082061768
3.3623883724212646 11.314763069152832 2.2696726322174072
3.4003372192382812 10.714387893676758 2.7223103046417236
3.4952306747436523 11.391685485839844 2.427335500717163
2.966156005859375 10.512755393981934 2.8821115493774414
3.4368789196014404 11.302180290222168 2.313628911972046
1.0967483520507812 13.525863647460938 3.5118167400360107
1.6206306219100952 12.501044273376465 3.817638874053955
2.953800916671753 10.64587688446045 2.6889264583587646
2.5654473304748535 12.477612495422363 2.776550054550171
3.2563552856445312 10.692669868469238 2.6937813758850098
1.603896975517273 12.670031547546387 3.9442224502563477
3.2831270694732666 11.122140884399414 2.712862491607666
1.9108061790466309 10.907647132873535 3.0556447505950928
3.3225045204162598 11.355854988098145 2.341909885406494
1.0815843343734741 12.9022798538208 4.104177951812744
0.2476426661014557 8.677749633789062 3.5767321586608887
3.296855926513672 10.735201835632324 2.288935422897339
1.3467870950698853 12.791060447692871 3.5685184001922607
1.4328317642211914 13.1428804397583 3.325985908508301
1.7962236404418945 12.859967231750488 2.6458089351654053
3.0827691555023193 10.492281913757324 2.7465405464172363
3.4698636531829834 11.428189277648926 2.3866465091705322
2.923504590988159 11.853399276733398 2.523982048034668
1.8344449996948242 12.498459815979004 1.9607808589935303
3.44024658203125 9.741539001464844 2.0581629276275635
2.9798777103424072 10.56621265411377 2.8308629989624023
2.128530502319336 11.007608413696289 3.2095630168914795
2.8719122409820557 10.562234878540039 2.837568521499634
3.209278106689453 10.964203834533691 2.603607654571533
3.414456367492676 11.430010795593262 2.5524239540100098
1.9033688306808472 11.620641708374023 3.59910249710083
0.7284212112426758 13.564061164855957 3.215100049972534
3.5042459964752197 11.392958641052246 2.3168938159942627
2.9287867546081543 10.538874626159668 2.9630632400512695
-0.5169805884361267 9.816113471984863 3.632805585861206
1.3521994352340698 13.592671394348145 3.1997618675231934
2.9186389446258545 11.820402145385742 3.3550708293914795
3.421631097793579 11.425966262817383 2.3090152740478516
3.49609637260437 11.387619972229004 2.5140979290008545
2.2524688243865967 12.379294395446777 2.7748265266418457
1.8101792335510254 12.525369644165039 3.3180994987487793
3.418954610824585 11.405660629272461 2.4294750690460205
1.7659790515899658 9.21137523651123 2.997363567352295
1.5738029479980469 12.814709663391113 3.7468910217285156
3.343369960784912 10.689821243286133 2.5645241737365723
3.5289480686187744 11.420435905456543 2.3967230319976807
1.812816858291626 13.055074691772461 2.5823581218719482
3.6718392372131348 11.202374458312988 2.307853937149048
2.94217586517334 11.857078552246094 2.3349575996398926
2.392146110534668 11.439105033874512 3.198324680328369
1.4568760395050049 9.035835266113281 3.3031439781188965
4.399330139160156 10.113800048828125 2.349924325942993
1.9274094104766846 11.660242080688477 3.4857709407806396
3.539029598236084 11.413347244262695 2.3600199222564697
1.7515714168548584 12.53522777557373 3.6199188232421875
3.408891439437866 11.425643920898438 2.3503923416137695
2.056356906890869 12.489524841308594 3.445753812789917
3.2875378131866455 10.750003814697266 2.2441883087158203
1.4179168939590454 13.321378707885742 3.661949872970581
2.774210214614868 11.249847412109375 2.882539987564087
2.9901556968688965 11.549479484558105 2.210273027420044
2.701582670211792 10.46584415435791 2.935385227203369
2.7236764430999756 11.918973922729492 3.5093986988067627
3.3294756412506104 11.497344017028809 2.4949395656585693
1.8549563884735107 11.456913948059082 3.7265398502349854
3.3973166942596436 11.435239791870117 2.3845369815826416
0.5116140246391296 10.679779052734375 3.010671615600586
2.9766173362731934 10.563117027282715 2.8867087364196777
2.6286520957946777 10.718724250793457 3.077389717102051
2.034834384918213 12.39857006072998 3.489529848098755
2.266986846923828 12.531671524047852 2.7325220108032227
1.412136435508728 12.572256088256836 3.682080030441284
2.497558832168579 10.931783676147461 2.9845550060272217
1.170957326889038 13.53748607635498 2.975843906402588
3.4320569038391113 11.313300132751465 2.242253541946411
2.946995973587036 9.71894359588623 2.4409561157226562
1.3384908437728882 12.24558162689209 3.8199572563171387
-1.2977097034454346 10.78602123260498 3.5786964893341064
3.514721632003784 11.416426658630371 2.4669299125671387
2.3496878147125244 12.404306411743164 3.086444139480591
3.6846158504486084 11.197884559631348 2.247772693634033
2.949352979660034 9.336523056030273 2.328256845474243
1.4086498022079468 12.706557273864746 3.7601375579833984
2.5115742683410645 12.37774658203125 2.6909987926483154
2.9715259075164795 10.818138122558594 2.828510046005249
0.7671844959259033 13.889801979064941 3.2528774738311768
-0.6566541194915771 9.228073120117188 3.2412521839141846
2.4094953536987305 11.442435264587402 3.1133458614349365
1.4769582748413086 12.283288955688477 3.941758394241333
2.691150188446045 11.363237380981445 2.514373302459717
2.5493648052215576 11.477555274963379 2.434096097946167
1.0895202159881592 12.361506462097168 3.6057426929473877
1.3830738067626953 12.161409378051758 3.5360989570617676
2.354377269744873 11.891963005065918 2.635899782180786
3.82169771194458 11.333255767822266 2.3706207275390625
1.16691255569458 14.464798927307129 3.1923859119415283
0.861929178237915 14.78303050994873 3.8047738075256348
-0.3122865855693817 8.750509262084961 3.145181655883789
3.7124221324920654 11.278989791870117 2.3190879821777344
0.4317147433757782 12.987630844116211 3.382951259613037
3.097277879714966 12.088624954223633 2.801001787185669
1.87218177318573 13.659279823303223 3.4727113246917725
-0.92970210313797 8.839861869812012 3.1727771759033203
3.515843152999878 11.901606559753418 2.6305510997772217
3.240081310272217 11.881525993347168 2.7027342319488525
3.247523307800293 11.868478775024414 2.7405338287353516
3.7188704013824463 11.24843978881836 2.362161874771118
2.5596041679382324 12.821030616760254 3.2130813598632812
2.581644296646118 11.3691987991333 3.0908515453338623
3.2417991161346436 11.889575958251953 2.875288963317871
1.1736027002334595 12.323738098144531 4.1262969970703125
3.559279680252075 11.357784271240234 2.5607433319091797
2.895744800567627 10.496719360351562 2.914829969406128
1.7147691249847412 12.627374649047852 3.9988317489624023
1.438665747642517 14.347613334655762 3.282113790512085
-0.2791265845298767 10.917983055114746 3.2164528369903564
3.566699266433716 11.534770965576172 2.525756359100342
3.5823426246643066 11.515068054199219 2.4778804779052734
3.396908760070801 11.912571907043457 2.9957287311553955
3.385098934173584 11.863011360168457 2.6405439376831055
3.733210325241089 11.469162940979004 2.415391445159912
3.8147947788238525 11.47524356842041 2.267787456512451
1.9608949422836304 11.644442558288574 3.3289527893066406
3.329092502593994 11.910171508789062 2.8898537158966064
2.5626449584960938 12.373895645141602 3.72078537940979
1.13890540599823 12.244004249572754 4.175776958465576
3.828016519546509 11.345257759094238 2.26491117477417
3.274810552597046 12.004302024841309 2.9905803203582764
2.69999098777771 11.401525497436523 2.540229082107544
2.409897565841675 12.648401260375977 3.700878620147705
2.4284868240356445 10.47765827178955 2.97528338432312
1.4664376974105835 13.176656723022461 3.9924960136413574
3.5111758708953857 10.822651863098145 2.2506959438323975
3.089895248413086 10.4939603805542 2.7159976959228516
2.789677858352661 12.16478157043457 3.2908129692077637
-0.5068932175636292 9.514837265014648 3.272350549697876
0.2333681285381317 9.276830673217773 3.5102620124816895
3.681643009185791 11.595709800720215 2.2939748764038086
3.534379482269287 11.457554817199707 2.5194385051727295
3.46260929107666 11.786140441894531 2.9010539054870605
2.681818962097168 12.617393493652344 3.5000081062316895
1.800795555114746 11.540191650390625 3.4759373664855957
4.436134338378906 10.124861717224121 2.3632559776306152
1.4129611253738403 12.95091724395752 3.13081955909729
2.9134957790374756 12.605551719665527 3.3580424785614014
3.097262382507324 9.60380744934082 2.2991440296173096
3.5984323024749756 11.369911193847656 2.5586798191070557
0.33248597383499146 16.59063148498535 4.103265285491943
1.0831719636917114 14.53003215789795 3.319304943084717
3.784921407699585 11.501521110534668 2.474280595779419
3.442347288131714 9.422329902648926 2.3475027084350586
3.185356378555298 10.606429100036621 2.646909475326538
2.9443764686584473 12.351961135864258 3.7143301963806152
1.9335784912109375 11.223941802978516 3.3111042976379395
0.502981424331665 12.00057601928711 4.326754570007324
4.061485767364502 9.503826141357422 2.2122881412506104
3.801201343536377 11.492619514465332 2.3397278785705566
2.457561731338501 12.126057624816895 2.2476046085357666
3.5649070739746094 9.584230422973633 2.0352044105529785
-0.7896574139595032 10.723555564880371 3.040337324142456
3.73254132270813 11.357145309448242 2.4644315242767334
2.0700740814208984 9.852299690246582 2.6347153186798096
0.7690602540969849 12.890899658203125 4.391616344451904
3.7495291233062744 11.337296485900879 2.3935036659240723
4.105218410491943 9.855875968933105 2.1953065395355225
3.0907015800476074 9.728913307189941 2.7201340198516846
0.7633705735206604 13.627355575561523 3.0571982860565186
-1.7340399026870728 15.918118476867676 3.37760591506958
-0.6214491128921509 8.551302909851074 3.216587543487549
-1.2529369592666626 9.74830150604248 3.038917064666748
3.869607925415039 11.46273136138916 2.346165657043457
2.489640712738037 11.586587905883789 2.6501598358154297
-1.1597261428833008 10.320676803588867 3.204907178878784
3.6163792610168457 11.820366859436035 2.6715798377990723
1.7865805625915527 10.529861450195312 2.9790611267089844
3.261836051940918 10.679725646972656 2.2373993396759033
-1.2855761051177979 12.291633605957031 3.8585546016693115
3.058320999145508 9.353865623474121 2.173483371734619
2.8785154819488525 11.943328857421875 3.2334823608398438
3.3645122051239014 11.895007133483887 2.976954460144043
-0.1420176476240158 11.890594482421875 3.7366740703582764
2.037304162979126 11.428600311279297 3.1259918212890625
0.15600326657295227 10.351057052612305 2.464686870574951
2.3255691528320312 13.107367515563965 3.266512393951416
2.0201525688171387 13.336641311645508 3.3915438652038574
3.2030677795410156 11.294063568115234 2.8236019611358643
1.7721548080444336 11.580869674682617 3.3290345668792725
2.949040174484253 9.900450706481934 2.130713939666748
-1.0900161266326904 10.864730834960938 3.7470273971557617
3.264394998550415 11.99908447265625 2.9368250370025635
3.1469311714172363 12.315184593200684 3.289886236190796
1.6440060138702393 12.998275756835938 2.7398550510406494
2.5772862434387207 9.56101131439209 2.3481717109680176
1.9094892740249634 11.064638137817383 3.2886366844177246
3.1714909076690674 9.333518028259277 2.118741512298584
2.986799478530884 11.921181678771973 3.322736978530884
3.888592004776001 11.427525520324707 2.2969183921813965
3.0625100135803223 11.773661613464355 2.398616075515747
3.042886257171631 12.47596549987793 3.2581377029418945
3.410639524459839 11.619013786315918 2.798149347305298
2.9851596355438232 12.407049179077148 3.3772268295288086
-0.001846357132308185 10.36610221862793 3.6271169185638428
3.6019554138183594 11.833285331726074 2.6045432090759277
-0.3798956573009491 9.86276626586914 3.3337697982788086
-1.0883619785308838 10.147066116333008 3.187180519104004
2.0710630416870117 9.238396644592285 2.9896082878112793
1.2324187755584717 12.98971939086914 3.7971279621124268
1.3308429718017578 13.943074226379395 2.9907920360565186
3.647062063217163 11.293624877929688 2.3251218795776367
-1.130557894706726 10.602717399597168 3.368657112121582
3.235271453857422 11.898061752319336 2.910099744796753
3.8031461238861084 11.378623008728027 2.302366256713867
2.7129108905792236 12.579061508178711 2.6687777042388916
2.937415361404419 9.348855018615723 2.3573689460754395
3.6089723110198975 11.720990180969238 2.909384250640869
-0.017139647156000137 10.589412689208984 3.6596758365631104
2.80726957321167 9.859078407287598 2.454061985015869
1.4373387098312378 12.935992240905762 3.5900180339813232
2.1016557216644287 13.58378791809082 3.455869674682617
1.4326698780059814 10.19227123260498 2.1822550296783447
0.31540554761886597 11.631218910217285 3.7737765312194824
1.2635797262191772 10.241647720336914 2.064833641052246
1.0285083055496216 13.394865989685059 3.5195634365081787
1.756108045578003 12.5670804977417 3.3372771739959717
-1.1112191677093506 10.551023483276367 3.1013481616973877
-2.7642040252685547 10.294645309448242 3.7858450412750244
-0.8711848258972168 12.270099639892578 3.799187183380127
3.4857077598571777 11.286800384521484 2.513105630874634
2.4524755477905273 11.938098907470703 2.759392023086548
1.25934636592865 11.0562162399292 3.1515023708343506
1.0595632791519165 11.495085716247559 3.3923723697662354
2.5038115978240967 11.583658218383789 2.5949089527130127
1.0082594156265259 12.02241325378418 3.1254658699035645
3.29465389251709 11.824407577514648 2.613856077194214
2.608121395111084 12.381142616271973 2.651822805404663
3.5944082736968994 12.001398086547852 2.6097030639648438
-0.5304768681526184 10.701668739318848 2.8818795680999756
2.5877645015716553 11.448753356933594 2.956540822982788
2.206362724304199 11.758257865905762 3.0939102172851562
1.4055147171020508 13.00501537322998 3.496896743774414
3.853916645050049 11.014260292053223 2.4245100021362305
1.9157681465148926 10.99597454071045 2.8860459327697754
1.9274886846542358 11.065435409545898 2.9530842304229736
2.2334625720977783 13.561971664428711 3.5907304286956787
1.8151764869689941 11.587626457214355 3.107816457748413
3.406235456466675 12.24892807006836 2.6798136234283447
3.7628836631774902 9.517387390136719 2.0959577560424805
3.4371285438537598 10.770587921142578 2.529097318649292
2.4592854976654053 11.512855529785156 2.745715856552124
3.8346986770629883 11.79684066772461 2.5660128593444824
0.8611568808555603 13.019463539123535 3.8647682666778564
0.05240677669644356 10.644050598144531 2.346916913986206
-2.1029269695281982 10.584900856018066 3.0691747665405273
2.542462110519409 11.591466903686523 2.5936670303344727
2.2396857738494873 12.39964485168457 2.5848889350891113
3.44280743598938 12.003130912780762 3.1065971851348877
2.748239040374756 11.45798397064209 2.5717267990112305
2.444260835647583 12.412005424499512 3.3090384006500244
3.1751744747161865 10.567490577697754 3.0174524784088135
-0.7078270316123962 11.008652687072754 3.5968379974365234
1.2703988552093506 12.335504531860352 3.3415682315826416
3.5147769451141357 11.362074851989746 2.3944923877716064
1.3897185325622559 14.404611587524414 3.182718276977539
3.1292049884796143 11.704272270202637 2.4694557189941406
-0.5526278614997864 12.040952682495117 3.5085558891296387
3.137852191925049 12.22729778289795 2.971334934234619
3.541837453842163 12.021031379699707 3.1157171726226807
3.6280715465545654 12.039047241210938 2.5569002628326416
3.4905338287353516 11.507552146911621 2.6556289196014404
0.22154732048511505 9.645289421081543 3.3389925956726074
1.029389500617981 13.662272453308105 2.6629011631011963
3.3126015663146973 11.90417194366455 2.9750688076019287
3.6141600608825684 12.071629524230957 2.6515440940856934
2.8206002712249756 10.199329376220703 2.7813189029693604
-1.4719775915145874 12.620484352111816 3.775479793548584
0.43673256039619446 12.06533145904541 3.8084018230438232
3.23642897605896 10.727557182312012 2.5259273052215576
3.2269294261932373 12.332983016967773 3.276383399963379
2.5044267177581787 12.385598182678223 2.777346134185791
2.9135148525238037 10.431096076965332 2.805156707763672
2.5484912395477295 9.6494140625 2.704503297805786
3.3214528560638428 10.380269050598145 2.1407690048217773
-0.425385057926178 10.10739517211914 3.2558581829071045
3.1925344467163086 9.922351837158203 2.178856134414673
2.9803500175476074 10.424114227294922 2.366386651992798
3.012056827545166 10.604031562805176 2.8075478076934814
-1.1522773504257202 11.567065238952637 3.52227783203125
-3.4427521228790283 10.722190856933594 4.2550578117370605
-2.1423521041870117 13.422567367553711 4.271608829498291
2.3042585849761963 13.111784934997559 3.3495841026306152
1.988108515739441 13.306940078735352 3.46863055229187
1.1486862897872925 10.995661735534668 3.1771717071533203
2.8918418884277344 12.573954582214355 3.262314796447754
2.2016141414642334 13.57418155670166 3.4828226566314697
2.9901270866394043 12.293135643005371 2.9232099056243896
2.057626724243164 13.244013786315918 3.134084463119507
1.2201199531555176 12.46361255645752 3.1644539833068848
3.063594341278076 10.409540176391602 2.7772021293640137
2.5837764739990234 11.600190162658691 2.623354434967041
2.1359429359436035 9.156615257263184 2.9981651306152344
2.5275864601135254 11.897211074829102 2.7575254440307617
1.9807649850845337 9.136046409606934 3.101424217224121
1.544147253036499 12.285204887390137 3.2227346897125244
2.4938666820526123 13.06174373626709 3.614173412322998
-0.16529406607151031 9.670843124389648 3.9016616344451904
2.576396942138672 11.072293281555176 2.8716273307800293
-3.6403372287750244 10.1145658493042 4.71262788772583
2.913301467895508 9.359000205993652 2.2421345710754395
2.779341697692871 11.3524808883667 3.001443386077881
1.8210351467132568 12.515827178955078 3.661985158920288
-0.5314181447029114 9.568615913391113 3.8510162830352783
-0.05854861065745354 13.986084938049316 3.318603992462158
2.8699941635131836 12.627925872802734 3.514281988143921
2.9739394187927246 12.401700019836426 3.54866099357605
3.0734126567840576 9.235466957092285 2.2843270301818848
3.225712537765503 12.244139671325684 2.962937116622925
2.0834362506866455 13.0148286819458 3.7122514247894287
1.5594398975372314 10.880167007446289 3.122185230255127
2.5325071811676025 9.799041748046875 2.432861089706421
3.3432135581970215 10.702698707580566 2.530003547668457
2.0086259841918945 11.43639850616455 3.5374701023101807
-0.3770587742328644 11.669459342956543 4.2613444328308105
1.4169706106185913 12.891983985900879 3.955254077911377
0.05185664817690849 11.995487213134766 4.056107997894287
0.9451649785041809 11.998414993286133 3.8642749786376953
3.429002523422241 10.589375495910645 2.1556825637817383
2.0106544494628906 12.851762771606445 3.6878304481506348
0.9733977913856506 12.714332580566406 3.623229742050171
0.5417338609695435 10.508064270019531 2.556164264678955
2.287886381149292 13.401785850524902 3.633819818496704
2.244809865951538 9.166733741760254 3.1222572326660156
3.0739989280700684 12.527923583984375 3.3789234161376953
3.296717405319214 12.062538146972656 3.0022506713867188
3.3368892669677734 12.295634269714355 3.3102824687957764
-0.11966435611248016 10.003045082092285 3.806126832962036
1.8760420083999634 9.21231460571289 3.268683433532715
1.816330909729004 9.71753215789795 2.8219735622406006
3.1174991130828857 12.496868133544922 3.1278233528137207
0.7337452173233032 12.197162628173828 4.044003009796143
2.1614625453948975 13.264309883117676 3.3052713871002197
3.0113070011138916 10.48498821258545 2.821033239364624
1.1743680238723755 10.020408630371094 2.6983070373535156
1.833328127861023 13.099469184875488 3.561537742614746
1.7750800848007202 13.090352058410645 3.937299966812134
2.877286434173584 10.072309494018555 2.345275640487671
2.0823569297790527 12.363213539123535 2.8740036487579346
-0.9937260150909424 10.04988956451416 3.929046154022217
